# Organic pointcloud sample - flower-like structure
# Format: x y z r g b
0.0 0.0 0.0 255 255 200
0.02 0.05 0.01 250 240 180
-0.02 0.05 0.01 250 240 180
0.04 0.08 0.02 245 230 160
-0.04 0.08 0.02 245 230 160
0.0 0.1 0.03 240 220 140
0.06 0.12 0.0 235 210 120
-0.06 0.12 0.0 235 210 120
0.08 0.15 -0.01 230 200 100
-0.08 0.15 -0.01 230 200 100
0.1 0.18 -0.02 225 190 80
-0.1 0.18 -0.02 225 190 80
0.12 0.2 -0.03 220 180 60
-0.12 0.2 -0.03 220 180 60
0.05 0.03 0.08 200 255 200
-0.05 0.03 0.08 200 255 200
0.1 0.06 0.12 190 245 190
-0.1 0.06 0.12 190 245 190
0.15 0.09 0.16 180 235 180
-0.15 0.09 0.16 180 235 180
0.2 0.12 0.2 170 225 170
-0.2 0.12 0.2 170 225 170
0.25 0.15 0.24 160 215 160
-0.25 0.15 0.24 160 215 160
0.07 -0.03 0.05 255 200 255
-0.07 -0.03 0.05 255 200 255
0.14 -0.06 0.1 245 190 245
-0.14 -0.06 0.1 245 190 245
0.21 -0.09 0.15 235 180 235
-0.21 -0.09 0.15 235 180 235
0.28 -0.12 0.2 225 170 225
-0.28 -0.12 0.2 225 170 225
0.03 0.07 -0.05 200 200 255
-0.03 0.07 -0.05 200 200 255
0.06 0.14 -0.1 190 190 245
-0.06 0.14 -0.1 190 190 245
0.09 0.21 -0.15 180 180 235
-0.09 0.21 -0.15 180 180 235
0.12 0.28 -0.2 170 170 225
-0.12 0.28 -0.2 170 170 225
0.08 0.02 -0.08 255 150 150
-0.08 0.02 -0.08 255 150 150
0.16 0.04 -0.16 245 140 140
-0.16 0.04 -0.16 245 140 140
0.24 0.06 -0.24 235 130 130
-0.24 0.06 -0.24 235 130 130
0.32 0.08 -0.32 225 120 120
-0.32 0.08 -0.32 225 120 120
0.01 -0.02 0.12 180 255 180
-0.01 -0.02 0.12 180 255 180
0.02 -0.04 0.24 170 245 170
-0.02 -0.04 0.24 170 245 170
0.03 -0.06 0.36 160 235 160
-0.03 -0.06 0.36 160 235 160
0.04 -0.08 0.48 150 225 150
-0.04 -0.08 0.48 150 225 150
0.11 0.05 0.03 255 220 180
-0.11 0.05 0.03 255 220 180
0.22 0.1 0.06 245 210 170
-0.22 0.1 0.06 245 210 170
0.33 0.15 0.09 235 200 160
-0.33 0.15 0.09 235 200 160
0.44 0.2 0.12 225 190 150
-0.44 0.2 0.12 225 190 150
0.13 -0.05 -0.03 200 255 220
-0.13 -0.05 -0.03 200 255 220
0.26 -0.1 -0.06 190 245 210
-0.26 -0.1 -0.06 190 245 210
0.39 -0.15 -0.09 180 235 200
-0.39 -0.15 -0.09 180 235 200
0.52 -0.2 -0.12 170 225 190
-0.52 -0.2 -0.12 170 225 190
0.05 0.12 0.07 255 180 220
-0.05 0.12 0.07 255 180 220
0.1 0.24 0.14 245 170 210
-0.1 0.24 0.14 245 170 210
0.15 0.36 0.21 235 160 200
-0.15 0.36 0.21 235 160 200
0.2 0.48 0.28 225 150 190
-0.2 0.48 0.28 225 150 190
0.17 -0.08 0.11 220 255 180
-0.17 -0.08 0.11 220 255 180
0.34 -0.16 0.22 210 245 170
-0.34 -0.16 0.22 210 245 170
0.51 -0.24 0.33 200 235 160
-0.51 -0.24 0.33 200 235 160
0.68 -0.32 0.44 190 225 150
-0.68 -0.32 0.44 190 225 150
0.09 0.18 -0.12 180 220 255
-0.09 0.18 -0.12 180 220 255
0.18 0.36 -0.24 170 210 245
-0.18 0.36 -0.24 170 210 245
0.27 0.54 -0.36 160 200 235
-0.27 0.54 -0.36 160 200 235
0.36 0.72 -0.48 150 190 225
-0.36 0.72 -0.48 150 190 225