# Sphere pointcloud sample
# Format: x y z r g b
0.0 0.0 0.0 255 255 255
0.1 0.0 0.0 255 200 200
-0.1 0.0 0.0 255 200 200
0.0 0.1 0.0 200 255 200
0.0 -0.1 0.0 200 255 200
0.0 0.0 0.1 200 200 255
0.0 0.0 -0.1 200 200 255
0.071 0.071 0.0 255 255 150
-0.071 0.071 0.0 255 255 150
0.071 -0.071 0.0 255 255 150
-0.071 -0.071 0.0 255 255 150
0.071 0.0 0.071 255 150 255
-0.071 0.0 0.071 255 150 255
0.071 0.0 -0.071 255 150 255
-0.071 0.0 -0.071 255 150 255
0.0 0.071 0.071 150 255 255
0.0 -0.071 0.071 150 255 255
0.0 0.071 -0.071 150 255 255
0.0 -0.071 -0.071 150 255 255
0.058 0.058 0.058 200 200 200
-0.058 0.058 0.058 200 200 200
0.058 -0.058 0.058 200 200 200
-0.058 -0.058 0.058 200 200 200
0.058 0.058 -0.058 200 200 200
-0.058 0.058 -0.058 200 200 200
0.058 -0.058 -0.058 200 200 200
-0.058 -0.058 -0.058 200 200 200
0.087 0.05 0.0 240 180 120
-0.087 0.05 0.0 240 180 120
0.087 -0.05 0.0 240 180 120
-0.087 -0.05 0.0 240 180 120
0.05 0.087 0.0 180 240 120
-0.05 0.087 0.0 180 240 120
0.05 -0.087 0.0 180 240 120
-0.05 -0.087 0.0 180 240 120
0.087 0.0 0.05 240 120 180
-0.087 0.0 0.05 240 120 180
0.087 0.0 -0.05 240 120 180
-0.087 0.0 -0.05 240 120 180
0.05 0.0 0.087 120 240 180
-0.05 0.0 0.087 120 240 180
0.05 0.0 -0.087 120 240 180
-0.05 0.0 -0.087 120 240 180
0.0 0.087 0.05 180 120 240
0.0 -0.087 0.05 180 120 240
0.0 0.087 -0.05 180 120 240
0.0 -0.087 -0.05 180 120 240
0.0 0.05 0.087 120 180 240
0.0 -0.05 0.087 120 180 240
0.0 0.05 -0.087 120 180 240
0.0 -0.05 -0.087 120 180 240
0.095 0.031 0.0 220 180 100
-0.095 0.031 0.0 220 180 100
0.095 -0.031 0.0 220 180 100
-0.095 -0.031 0.0 220 180 100
0.031 0.095 0.0 180 220 100
-0.031 0.095 0.0 180 220 100
0.031 -0.095 0.0 180 220 100
-0.031 -0.095 0.0 180 220 100
0.095 0.0 0.031 220 100 180
-0.095 0.0 0.031 220 100 180
0.095 0.0 -0.031 220 100 180
-0.095 0.0 -0.031 220 100 180
0.031 0.0 0.095 100 220 180
-0.031 0.0 0.095 100 220 180
0.031 0.0 -0.095 100 220 180
-0.031 0.0 -0.095 100 220 180
0.0 0.095 0.031 180 100 220
0.0 -0.095 0.031 180 100 220
0.0 0.095 -0.031 180 100 220
0.0 -0.095 -0.031 180 100 220
0.0 0.031 0.095 100 180 220
0.0 -0.031 0.095 100 180 220
0.0 0.031 -0.095 100 180 220
0.0 -0.031 -0.095 100 180 220